-0.083115 -0.148381 0.677043 -0.560358 0.062284 0.825905
-0.072885 0.241213 0.493572 0.523352 -0.077379 0.848596
0.199903 -0.16038 0.41057 -0.115625 -0.882757 0.455379
0.026102 -0.1447 0.239723 -0.40405 0.364223 0.839098
0.01358 0.128211 0.672458 0.228432 -0.396671 0.889084
0.223526 0.091497 0.29453 0.203131 -0.134828 0.969824
-0.009006 0.151107 0.671525 -0.107548 -0.045758 0.993146
-0.136071 0.019782 0.35087 -0.735652 0.39015 0.553714
0.098081 -0.180118 0.306833 -0.263471 0.003911 0.964659
-0.071284 -0.180026 0.445765 -0.864738 0.258901 0.430347
-0.01694 -0.184552 0.363726 -0.258672 -0.570269 0.779668
-0.042151 -0.248692 0.453244 -0.128502 -0.376727 0.917368
0.211108 0.091505 0.298383 0.014317 0.20919 0.97777
-0.000649 0.033539 0.340373 0.31859 -0.354936 0.878931
0.003671 0.11923 0.670997 0.228432 -0.396671 0.889084
0.07674 0.269614 0.391095 0.13277 0.328869 0.934996
-0.065141 -0.148388 0.586159 -0.006212 -0.189571 0.981847
0.062553 -0.016668 0.960247 -0.016403 -0.345682 0.938208
-0.140852 -0.072917 0.518484 0.037331 0.596169 0.801991
0.037779 0.098215 0.267043 0.132324 0.236537 0.96257
-0.057198 -0.247599 0.451585 -0.128502 -0.376727 0.917368
-0.051919 -0.133007 0.448444 -0.832914 -0.160461 0.529629
0.114048 0.134419 0.532144 0.137961 0.080497 0.987161
-0.099847 -0.029918 0.285839 -0.287916 0.846243 0.448306
0.239763 0.095384 0.293014 0.157112 0.906831 0.391118
0.01643 0.125993 0.672544 -0.451596 0.115088 0.884769
-0.002151 0.051918 0.33907 0.0948 0.565103 0.819556
-0.206655 -0.040329 0.505706 -0.121236 0.865176 0.486593
0.04957 0.156243 0.261232 0.302457 0.562808 0.769264
0.155774 0.141223 0.564904 0.585604 0.233526 0.776231
-0.191886 -0.031264 0.509015 -0.56118 -0.662738 0.495838
-0.086927 0.164302 0.403682 0.117702 0.010637 0.992992
-0.127655 -0.075608 0.161887 0.217506 0.555568 0.802518
0.077652 -0.026593 0.913491 -0.220301 0.4765 0.851126
-0.024349 -0.166152 0.402252 -0.258753 -0.207163 0.943467
0.199371 0.047448 0.528974 0.130782 0.06794 0.98908
0.233005 0.104564 0.301567 0.48203 -0.789178 0.380584
-0.100625 0.137606 0.564647 -0.773126 -0.028843 0.633597
0.1009 0.114524 0.470749 -0.53865 0.641539 0.546154
0.001491 -0.214807 0.337166 -0.081322 -0.546568 0.833457
-0.048373 -0.159279 0.578356 0.296733 -0.097894 0.94993
-0.059609 -0.150089 0.582813 0.296733 -0.097894 0.94993
-0.18586 0.091393 0.480484 -0.331861 0.781982 0.52761
-0.073316 0.030453 0.434492 0.542159 0.544944 0.639609
0.060212 0.119176 0.5073 0.165274 0.645454 0.745704
0.10646 -0.066679 0.209376 -0.55734 -0.018658 0.830074
0.086738 0.039371 0.424469 -0.467409 -0.398842 0.788957
-0.063266 0.160646 0.388552 -0.930477 -0.024922 0.3655
-0.150348 0.022856 0.33442 -0.204063 0.189458 0.96045
-0.165018 0.023716 0.331133 -0.204063 0.189458 0.96045
-0.004185 0.033095 0.479705 0.058056 0.892662 0.446972
-0.087638 -0.100619 0.357704 0.643244 -0.44069 0.626122
-0.098314 0.129926 0.567118 -0.773126 -0.028843 0.633597
0.120118 0.135123 0.527476 0.327372 -0.531015 0.781569
0.128708 0.144971 0.270199 -0.421776 0.039367 0.905845
0.112733 0.144687 0.45983 0.548657 -0.119791 0.827421
0.191938 -0.029186 0.605987 -0.193488 -0.754805 0.626763
-0.016287 0.070842 0.363965 0.135246 0.198486 0.970728
0.08429 0.158702 0.51973 0.307146 0.143778 0.940739
0.045181 0.161055 0.35934 0.768443 0.424519 0.47883
0.04743 0.142924 0.371805 0.768443 0.424519 0.47883
-0.155922 0.02027 0.339608 0.299621 0.81303 0.499208
-0.044753 0.197652 0.294172 0.754198 0.528111 0.390235
-0.038081 0.193005 0.287566 0.754198 0.528111 0.390235
0.185986 0.050971 0.271356 0.51174 0.443147 0.736032
0.132281 0.004777 0.468015 0.526363 0.092079 0.84526
-0.121756 0.095218 0.697345 0.910889 -0.249289 0.328841
0.128658 0.005047 0.474286 0.133345 -0.134066 0.98196
-0.102565 -0.170784 0.583224 0.236039 0.396885 0.886999
-0.032734 0.109677 0.581718 0.50975 -0.098112 0.85471
0.180159 -0.002369 0.363537 0.209161 -0.044297 0.976878
0.008824 0.005769 0.589489 -0.563385 -0.181451 0.806023
-0.086364 -0.147057 0.431085 0.350573 -0.353161 0.867396
-0.182004 -0.061625 0.35267 -0.126069 -0.865781 0.484283
-0.129972 -0.011106 0.482235 -0.549554 -0.705793 0.447042
-0.040311 0.104833 0.585681 0.50975 -0.098112 0.85471
-0.155291 -0.044499 0.625523 0.429208 0.389683 0.814817
-0.033727 0.205969 0.286639 -0.87687 0.173942 0.448156
-0.007086 -0.163337 0.556514 -0.199516 -0.476725 0.856111
0.015493 -0.005456 0.591623 -0.563385 -0.181451 0.806023
0.18013 0.098434 0.265462 0.491046 0.504458 0.710208
0.178155 0.081961 0.278528 0.491046 0.504458 0.710208
0.093664 -0.180773 0.385413 -0.543479 -0.472814 0.693597
-0.04798 -0.110507 0.61814 -0.694246 0.093362 0.713657
-0.030706 0.201755 0.294186 -0.920132 0.038306 0.389732
-0.087005 -0.037462 0.785535 0.150344 -0.005282 0.98862
0.169907 -0.03023 0.40659 0.62095 0.388822 0.680616
0.136115 -0.055264 0.22171 -0.087051 -0.298761 0.95035
0.139748 -0.074947 0.215855 -0.087051 -0.298761 0.95035
-0.175597 -0.054692 0.257085 -0.902832 -0.009518 0.429889
-0.075527 -0.022961 0.659677 0.260954 0.065549 0.963123
-0.204634 -0.018603 0.340204 -0.26989 0.14233 0.952314
0.177926 -0.035512 0.402292 0.128685 -0.501056 0.855794
-0.183487 -0.022623 0.34609 -0.156413 -0.233722 0.95964
0.105942 -0.019835 0.740512 0.423613 -0.185806 0.886582
-0.027117 -0.082534 0.504768 -0.358253 -0.370834 0.856818
0.140172 0.027653 0.208733 0.861021 0.06894 0.503875
-0.051441 -0.135792 0.418236 0.658446 -0.520715 0.54342
-0.164284 -0.158588 0.550436 0.066182 0.048759 0.996616
-0.065933 0.116629 0.380021 -0.870398 -0.006885 0.492301
-0.016102 0.244672 0.586757 -0.098631 -0.680409 0.726165
-0.060681 0.146647 0.405043 0.837716 0.171336 0.518532
-0.009282 0.117726 0.609109 0.640336 0.305104 0.704899
0.107699 -0.192389 0.379096 -0.508245 -0.757914 0.408967
0.099873 -0.190847 0.372228 -0.508245 -0.757914 0.408967
0.027465 -0.186582 0.598287 -0.837918 -0.308077 0.450536
0.09752 -0.18802 0.426642 0.013244 -0.519311 0.854483
0.007343 -0.189338 0.592585 0.580746 -0.67805 0.450535
-0.079067 -0.154243 0.435519 -0.734267 0.439773 0.517157
-0.001487 -0.144871 0.57807 -0.301054 -0.545203 0.782381
-0.022427 0.152194 0.236129 -0.379213 0.725692 0.574081
0.081548 -0.188092 0.426846 0.013244 -0.519311 0.854483
0.089992 -0.204745 0.37783 0.882116 0.165794 0.440889
0.201411 0.019301 0.430503 0.18269 0.78624 0.590298
0.152058 0.056933 0.474727 -0.014933 0.331996 0.943163
0.150728 0.042735 0.479704 -0.014933 0.331996 0.943163
0.18202 -0.015244 0.407124 0.091574 -0.540623 0.836266
0.035406 0.104651 0.404669 0.906103 -0.092888 0.412733
0.130447 -0.005988 0.343101 -0.156968 -0.260038 0.952755
0.16511 0.172322 0.576503 -0.023316 -0.179961 0.983397
0.097829 0.008435 0.186298 0.737599 0.571928 0.358952
0.069321 -0.07923 0.246776 -0.59909 -0.657803 0.456493
0.10215 0.02758 0.185439 0.41392 -0.828589 0.376975
0.034087 -0.18653 0.176575 0.361045 -0.796386 0.485196
0.176626 0.170505 0.57705 -0.0665 -0.175221 0.982281
-0.106729 0.030217 0.552598 0.719785 0.296621 0.627635
-0.028549 0.087301 0.459314 -0.637369 0.588297 0.497661
0.121897 -0.08378 0.492968 -0.144509 -0.831762 0.535993
0.192361 0.044806 0.30482 -0.093137 -0.321389 0.942356
0.083663 -0.15879 0.342646 0.324732 -0.863764 0.385305
0.092066 -0.158855 0.335418 0.324732 -0.863764 0.385305
-0.051507 -0.052777 0.635801 -0.579158 -0.230412 0.781976
0.202398 0.031867 0.311602 -0.700314 0.456574 0.548726
0.202616 -0.00769 0.492697 -0.052318 0.920332 0.387624
-0.049786 -0.109746 0.139523 -0.941406 -0.131051 0.310775
-0.050649 -0.061802 0.633777 0.465108 -0.151361 0.872218
-0.003432 -0.091496 0.468291 0.399562 -0.619052 0.67611
-0.01729 -0.095403 0.472904 0.399562 -0.619052 0.67611
-0.051507 -0.052777 0.635801 0.465108 -0.151361 0.872218
-0.111071 -0.097791 0.413573 -0.846322 0.341157 0.409087
-0.116917 -0.104317 0.406922 -0.846322 0.341157 0.409087
0.059893 0.195711 0.381139 -0.316636 0.467588 0.825289
0.09752 -0.18802 0.426642 -0.272992 0.031954 0.961486
0.170031 -0.182148 0.412418 0.886903 -0.123435 0.44516
0.072525 -0.138126 0.314988 -0.148457 0.152067 0.977157
-0.087375 0.077462 0.722528 -0.371805 0.120276 0.920486
-0.014496 -0.170434 0.308292 -0.09068 -0.899714 0.426956
-0.07996 -0.063076 0.369406 -0.596865 -0.674619 0.434328
-0.076229 -0.181926 0.436971 -0.236595 -0.127783 0.963169
0.084036 0.065579 0.399137 -0.026422 -0.741908 0.669981
0.087637 0.058777 0.391747 -0.026422 -0.741908 0.669981
-0.060515 0.112299 0.287545 -0.126074 0.076085 0.989099
-0.091932 0.131776 0.370837 -0.422294 0.815792 0.39516
-0.066157 0.031459 0.434601 -0.639962 0.388303 0.663076
0.184439 0.009513 0.504482 -0.656487 -0.095896 0.748217
-0.150192 0.085807 0.646278 0.615397 -0.557156 0.557551
0.03501 -0.146298 0.289336 0.83507 -0.282891 0.471837
-0.048376 0.113341 0.241523 0.567757 0.136578 0.811787
-0.055218 0.104272 0.247833 0.567758 0.136578 0.811787
0.081903 -0.203307 0.215239 -0.293811 -0.296944 0.90857
0.11573 0.052241 0.469698 -0.673749 -0.198594 0.711774
-0.030013 0.11897 0.349102 -0.858161 -0.28202 0.428981
-0.054737 0.075589 0.461588 0.590765 -0.151032 0.792582
-0.060283 0.058713 0.462506 0.590765 -0.151032 0.792582
0.195848 0.034671 0.333644 0.711866 -0.408793 0.571083
-0.086684 0.150327 0.370518 -0.613796 -0.624021 0.483583
-0.069726 -0.138485 0.423956 0.209232 0.618747 0.757214
-0.07696 -0.142422 0.429172 0.209232 0.618747 0.757214
-0.021577 0.014188 0.741024 0.761155 -0.430339 0.485234
-0.114367 0.173052 0.426336 -0.041805 0.482271 0.875024
-0.107913 -0.050253 0.494748 -0.376231 -0.695146 0.612554
-0.06451 0.076832 0.499519 -0.414803 -0.552288 0.723129
-0.017865 0.061809 0.469421 0.22965 0.159191 0.960166
-0.020814 0.052789 0.471621 0.22965 0.15919 0.960166
-0.015985 0.14177 0.255117 0.757701 0.018439 0.652342
0.13876 -0.013589 0.463234 0.072426 0.794654 0.602727
0.020729 0.105824 0.612195 0.672754 0.20379 0.711247
-0.118887 0.08153 0.655222 -0.437302 0.531429 0.7255
0.071391 -0.082307 0.237512 -0.437689 -0.791393 0.426761
0.042998 -0.227465 0.451312 -0.901714 -0.138747 0.409465
0.058202 -0.115803 0.316162 0.089236 -0.040593 0.995183
-0.155029 -0.077638 0.561878 0.604838 -0.397101 0.690276
-0.15171 0.198175 0.436135 -0.134837 0.129626 0.982352
0.037976 -0.131771 0.176473 0.751588 -0.432435 0.498112
0.174909 0.168599 0.574879 -0.024217 -0.063042 0.997717
-0.125739 -0.08848 0.55916 -0.60623 0.099623 0.789025
0.178775 0.005206 0.240629 -0.044835 -0.10493 0.993468
0.033891 -0.225757 0.45191 -0.837633 0.388675 0.383801
0.178775 0.005206 0.240629 -0.335744 -0.55215 0.763155
0.047209 0.178956 0.285311 0.026679 0.000384 0.999644
-0.073398 0.139063 0.40151 -0.003193 0.927737 0.373221
-0.145038 -0.069725 0.557676 0.672955 -0.0773 0.735633
-0.161438 -0.105766 0.522738 -0.118229 0.010422 0.992932
-0.135767 -0.066377 0.562317 -0.355057 -0.261179 0.897619
-0.146469 -0.059638 0.560045 -0.355057 -0.261179 0.897619
-0.028715 0.192791 0.271683 0.801051 0.421819 0.424718
0.185679 0.080509 0.324502 0.387095 -0.790049 0.475373
0.143911 0.097983 0.292034 0.785109 0.305656 0.538682
0.136372 0.091949 0.306446 0.785109 0.305656 0.538682
0.110315 0.064131 0.67765 -0.061524 -0.678334 0.732173
-0.028129 0.107457 0.232982 -0.653854 0.666223 0.35864
-0.034249 0.094573 0.368496 -0.009986 0.79544 0.60595
-0.044202 0.095094 0.367647 -0.009986 0.79544 0.60595
-0.061962 -0.090558 0.388938 -0.566366 -0.482473 0.668169
0.036211 0.09403 0.401164 -0.354988 0.506048 0.786065
0.133531 0.148613 0.279651 -0.133347 -0.402951 0.905455
0.164124 0.232077 0.328482 0.256153 0.155012 0.954126
0.061169 -0.091137 0.241731 0.774437 -0.460672 0.433623
0.049267 0.124243 0.291646 -0.37775 -0.426515 0.821821
0.135726 -0.057388 0.592846 0.290574 -0.474989 0.830633
0.190091 -0.050652 0.717447 -0.606251 -0.519403 0.60223
-0.106715 -0.06091 0.546424 -0.201499 -0.518174 0.8312
0.048697 -0.170264 0.486966 -0.495138 -0.550609 0.672062
-0.096388 -0.056709 0.55077 -0.044298 -0.543766 0.838067
-0.027496 0.172823 0.223165 0.747094 0.291123 0.597576
-0.030216 0.155268 0.235118 0.747094 0.291124 0.597576
-0.15342 0.093093 0.654024 0.293666 -0.833298 0.468375
0.063743 -0.189075 0.32286 -0.48102 0.195509 0.854632
-0.137672 0.092339 0.649611 -0.86881 -0.160702 0.468342
-0.161872 -0.105056 0.273345 0.191744 0.313288 0.930099
0.059815 -0.199928 0.323132 -0.48102 0.195509 0.854632
0.120278 -0.069112 0.596337 0.485254 -0.095463 0.869146
-0.055477 0.159136 0.373894 0.484622 0.253832 0.837084
-0.132296 0.089981 0.492316 -0.529931 -0.287903 0.797675
-0.077887 -0.026859 0.291039 -0.502357 0.700212 0.507288
-0.043364 -0.198859 0.380868 -0.084448 0.03887 0.995669
-0.039415 -0.193371 0.283849 -0.115535 0.394861 0.911448
0.050238 0.081204 0.575745 -0.440212 0.017417 0.897725
-0.05496 0.024771 0.349252 -0.154824 -0.38981 0.907787
-0.034509 -0.194241 0.38108 -0.003702 -0.091545 0.995794
-0.047142 0.133138 0.279729 -0.473084 -0.545656 0.691701
0.102244 0.137355 0.74675 -0.150942 0.568175 0.808946
-0.123072 0.075688 0.495148 -0.52908 0.231527 0.816376
0.021572 0.06492 0.398011 -0.451272 0.105311 0.886151
-0.152122 -0.007364 0.742445 0.139883 -0.179303 0.973798
-0.145296 0.011348 0.364685 -0.236644 0.407342 0.882084
-0.106793 -0.098015 0.173859 0.305922 0.434248 0.847254
-0.020849 -0.108156 0.647293 0.383469 -0.235506 0.893022
-0.084227 0.114898 0.288565 0.398675 0.017477 0.916926
0.084847 -0.19206 0.297009 -0.133541 -0.241932 0.96106
-0.092612 0.12972 0.289726 0.081813 -0.146457 0.985828
0.047453 -0.12221 0.567865 -0.57533 -0.115714 0.809695
-0.11441 -0.102587 0.178953 0.160275 0.084705 0.983431
0.0514 -0.151976 0.493869 -0.216493 -0.5114 0.831626
0.04017 0.072174 0.571095 -0.118327 -0.266499 0.956544
-0.061317 0.019669 0.871241 0.231811 0.091755 0.968424
0.04185 0.150637 0.447154 0.142699 -0.023945 0.989477
-0.064153 -0.076746 0.380133 -0.460836 0.582884 0.669236
0.036507 -0.183578 0.34662 -0.429635 0.529206 0.731679
-0.072768 -0.088468 0.384411 -0.460836 0.582884 0.669236
0.138559 -0.106401 0.521139 -0.224993 -0.215591 0.95021
-0.073992 -0.143126 0.447998 -0.408569 0.154439 0.899567
0.082656 -0.183186 0.298832 -0.015538 -0.265275 0.964048
0.024013 -0.188445 0.342803 -0.429635 0.529206 0.731679
0.138559 -0.106401 0.521139 -0.451623 0.039123 0.891351
-0.036128 0.097198 0.249623 0.15732 0.153495 0.975546
-0.138282 0.195882 0.596232 -0.800599 0.445473 0.400743
0.057364 -0.153139 0.492975 -0.104266 -0.522736 0.846094
0.19755 0.031558 0.528524 0.423733 0.147006 0.893778
0.1252 0.038616 0.35188 0.401202 -0.220366 0.889087
0.121674 0.13906 0.472534 -0.116748 0.07509 0.990319
0.111423 0.142018 0.471101 -0.116748 0.07509 0.990319
0.053949 -0.060075 0.834172 -0.815016 -0.34971 0.462008
0.024148 -0.131767 0.45913 -0.507238 -0.29389 0.810147
-0.079924 0.122748 0.360923 0.04463 0.840181 0.540466
-0.002483 0.176232 0.366631 -0.724815 -0.186017 0.663356
-0.008815 -0.165416 0.299683 -0.160813 0.076805 0.983992
-0.100846 0.064315 0.446297 -0.342008 0.347735 0.872989
-0.020517 0.186112 0.527272 -0.764156 0.479925 0.430973
0.036409 -0.176087 0.34476 -0.482953 0.044094 0.874535
-0.101075 -0.063121 0.396842 0.41019 0.258577 0.874575
-0.15304 0.201328 0.435507 -0.025793 0.167971 0.985455
-0.039923 0.111406 0.633262 -0.332997 0.385361 0.860587
0.112929 -0.019125 0.3677 -0.582525 -0.151101 0.798644
0.221062 -0.100637 0.439956 0.812209 0.366386 0.453958
0.02974 0.084263 0.821645 0.443367 0.341339 0.828802
-0.002794 0.039533 0.349476 -0.132599 -0.285103 0.949281
0.166313 0.176443 0.578984 -0.074429 -0.248307 0.965818
-0.133808 0.041369 0.82657 0.397852 -0.146366 0.905699
-0.081713 -0.141114 0.427396 -0.319642 -0.742212 0.589025
-0.180591 -0.023812 0.347399 -0.741969 0.069002 0.666874
-0.170644 -0.028957 0.358999 -0.741969 0.069002 0.666874
0.152347 -0.024691 0.759309 0.323935 -0.132973 0.936688
0.032069 0.165731 0.395143 0.352247 0.717286 0.601184
-0.028149 0.168886 0.364232 0.481197 -0.17015 0.859941
0.049207 -0.218063 0.439694 -0.559538 -0.763554 0.322338
-0.059856 0.081361 0.587812 0.305808 0.357106 0.882585
0.179717 0.060203 0.342092 -0.19005 -0.09955 0.976714
0.170364 0.068326 0.3411 -0.19005 -0.09955 0.976714
-0.000633 0.035507 0.344553 0.326478 -0.182169 0.927484
0.156938 -0.090813 0.62789 0.009305 0.29804 0.954508
-0.198377 0.055767 0.283573 -0.375251 0.591963 0.713279
0.084948 -0.169984 0.278467 0.114392 -0.760454 0.639237
0.076683 0.049072 0.596098 0.083213 0.602633 0.793668
-0.056129 -0.143821 0.631783 0.503002 -0.042302 0.863249
0.097879 -0.130198 0.262183 0.374507 -0.673208 0.637602
0.138131 -0.034907 0.223752 0.210281 0.253371 0.944238
0.183042 -0.097304 0.431707 -0.346577 0.017065 0.937866
-0.06266 -0.125277 0.639825 -0.037354 0.189003 0.981266
0.076813 -0.198129 0.196147 0.151542 -0.446434 0.881891
0.170901 -0.06586 0.621761 -0.002938 -0.267819 0.963465
0.048615 0.054671 0.741769 -0.255049 0.0727 0.964191
-0.065757 0.162339 0.240032 -0.534932 -0.068542 0.84211
0.091026 -0.188569 0.193289 0.422826 -0.227783 0.877116
0.082935 -0.193037 0.196029 0.422826 -0.227783 0.877116
0.080589 -0.196443 0.196023 0.363527 -0.314561 0.876869
-0.052308 0.069167 0.334229 -0.523854 0.691098 0.497956
-0.045804 0.075949 0.33166 -0.523854 0.691098 0.497956
0.121629 -0.044399 0.597033 -0.052985 -0.514496 0.855854
0.009195 -0.157551 0.550011 0.136161 -0.432292 0.891394
-0.098828 0.10256 0.640678 0.588679 -0.375163 0.716038
0.030034 -0.152237 0.238467 -0.627845 0.430529 0.648425
0.030383 -0.189328 0.338389 -0.389206 -0.234701 0.890749
0.107755 -0.102848 0.473937 0.793835 -0.277633 0.541059
-0.025956 0.13154 0.198729 -0.338134 0.714659 0.612314
-0.098828 0.10256 0.640678 -0.262103 0.261213 0.929015
0.043154 0.076006 0.816147 0.433036 -0.220833 0.873906
0.030536 0.077936 0.822887 0.433036 -0.220833 0.873906
0.121934 -0.009462 0.362807 -0.300087 -0.199374 0.932844
0.011159 0.260667 0.589178 -0.774824 0.457037 0.436766
0.128233 -0.063672 0.217731 -0.743181 -0.167029 0.647907
0.010634 0.253498 0.595749 -0.774824 0.457037 0.436766
-0.175981 -0.046111 0.273351 -0.212504 -0.866344 0.451984
0.125973 -0.117477 0.368394 0.760453 -0.185545 0.622322
0.059165 0.049069 0.764173 0.070132 0.369703 0.926499
0.049727 -0.136165 0.357656 -0.683821 0.522465 0.509331
-0.043751 0.165148 0.25378 -0.164997 0.778103 0.606079
-0.04129 0.118869 0.24223 0.000506 0.464629 0.885505
0.164065 -0.058755 0.61881 -0.340605 0.114789 0.933173
-0.139917 0.093195 0.650201 -0.701972 0.638474 0.315573
-0.015448 0.095151 0.484117 0.148773 0.742011 0.653672
0.09273 0.054215 0.279374 0.838826 -0.430478 0.333257
0.101439 0.055745 0.25943 0.838826 -0.430478 0.333257
-0.122734 0.078445 0.48708 -0.330897 -0.429592 0.840213
0.117222 -0.018142 0.544496 -0.325331 0.056471 0.943912
0.017596 0.017432 0.751301 0.412703 0.13652 0.900577
-0.079877 0.194901 0.25017 0.013233 0.229606 0.973194
-0.060921 0.065572 0.588124 0.435117 0.030672 0.899851
0.062523 -0.091409 0.593396 0.018093 -0.117142 0.99295
-0.0846 0.178371 0.253501 -0.201244 0.111333 0.973194
-0.085442 0.188947 0.252117 -0.201244 0.111333 0.973194
-0.049547 0.129862 0.286966 -0.122591 0.057617 0.990783
-0.058738 0.117208 0.286565 -0.122591 0.057617 0.990783
0.218548 -0.115546 0.354372 0.200721 -0.222733 0.953992
0.084034 0.1897 0.417375 0.09536 0.670437 0.735813
-0.032981 -0.035815 0.734841 -0.175807 -0.220918 0.959316
-0.155934 -0.064942 0.495128 -0.338875 -0.332913 0.879962
-0.028106 0.20567 0.256278 0.552319 0.719056 0.421784
0.159398 -0.120325 0.511102 0.456213 -0.091501 0.885154
0.08557 0.189911 0.453517 -0.125227 -0.051936 0.990768
-0.097088 0.185051 0.388918 0.239577 0.85638 0.457401
-0.089555 0.009103 0.659644 -0.179319 0.481078 0.858143
-0.073989 0.166264 0.263141 0.155558 0.802375 0.576191
-0.032197 0.001209 0.920614 -0.310567 -0.468699 0.826964
-0.164882 0.078396 0.501606 0.395285 -0.116751 0.911109
-0.175781 0.067911 0.504991 0.395285 -0.116751 0.911109
0.210624 -0.020476 0.297704 0.515975 0.617868 0.593304
0.08148 0.180998 0.452533 -0.377022 0.706904 0.59845
-0.129659 0.051646 0.799535 -0.802967 -0.218614 0.554484
-0.119799 -0.006807 0.700923 0.37579 0.270047 0.886485
0.096479 0.104564 0.723746 -0.641381 0.185742 0.744399
-0.002686 -0.132553 0.889684 0.87878 -0.312736 0.360474
-0.123275 -0.071985 0.603952 -0.203694 0.521706 0.828452
-0.193201 0.025216 0.376797 0.082292 0.131033 0.987957
0.043567 0.007856 0.885265 -0.537337 -0.006746 0.843341
-0.058892 0.157237 0.664957 -0.083794 -0.432774 0.8976
-0.077454 0.039627 0.254574 -0.279053 0.465244 0.840046
-0.078255 0.048524 0.24938 -0.279053 0.465244 0.840046
-0.143655 0.181656 0.576369 -0.435839 0.860413 0.264071
0.002088 0.250555 0.588497 0.927953 -0.017137 0.372304
-0.0892 0.192804 0.250569 -0.087158 0.192112 0.977495
-0.062023 0.091853 0.556049 0.731108 -0.051498 0.680315
-0.001468 0.143938 0.547375 -0.569726 -0.493189 0.657402
-0.170208 0.067511 0.503438 0.161307 0.221578 0.961708
-0.152605 -0.007743 0.488406 -0.783331 -0.105705 0.612552
0.045705 0.061514 0.372738 -0.210355 -0.077774 0.974527
0.03134 0.054694 0.369093 -0.210355 -0.077774 0.974527
0.034834 -0.220591 0.43659 0.448252 -0.800076 0.398684
-0.0958 -0.083499 0.482634 0.013699 -0.531275 0.847089
-0.102094 -0.071197 0.490451 0.013699 -0.531275 0.847088
0.166179 0.096079 0.263805 0.522446 0.662223 0.537132
-0.139075 -0.088112 0.520187 0.128805 -0.703965 0.698457
-0.044762 0.13264 0.500795 0.329257 0.625715 0.707157
-0.104332 -0.080434 0.484694 0.327555 0.312559 0.891636
-0.112423 -0.074915 0.535822 0.066631 -0.11698 0.990897
0.050943 0.127939 0.630016 -0.421971 0.7721 0.475187
-0.06333 0.035089 0.79348 -0.035341 -0.424666 0.90466
-0.034062 0.205949 0.266487 -0.097169 0.813415 0.57351
-0.176954 -0.011454 0.364835 -0.587249 -0.536078 0.606431
0.015737 0.033934 0.532435 0.487799 0.118261 0.864908
-0.009086 -0.114087 0.392821 -0.134016 -0.303084 0.943493
-0.004331 -0.109461 0.394983 -0.357508 -0.067746 0.93145
-0.040339 -0.008046 0.871069 0.52391 0.034816 0.851062
-0.040407 -0.022086 0.871686 0.52391 0.034816 0.851062
-0.009086 -0.114087 0.392821 -0.357508 -0.067746 0.93145
0.181956 -0.061296 0.720097 0.721665 0.586789 0.367259
-0.077067 -0.160844 0.248592 0.502425 -0.374407 0.779351
-0.085842 0.042633 0.865835 -0.11176 0.577603 0.808631
-0.180059 -0.07428 0.537726 -0.553204 -0.224902 0.802113
0.09131 -0.172557 0.284012 -0.753722 -0.461603 0.467788
0.197846 -0.05112 0.720085 0.532058 -0.716199 0.451635
0.083049 -0.024231 0.35464 -0.170412 0.291539 0.941257
-0.092896 -0.132236 0.565449 -0.133666 -0.348875 0.927588
-0.06585 -0.105683 0.721017 -0.023907 0.454683 0.890333
-0.106715 -0.016164 0.40623 -0.379383 0.414213 0.827342
-0.027893 0.181629 0.414018 0.442836 0.62062 0.647091
-0.125924 0.025295 0.635193 0.620308 -0.482742 0.618206
0.20603 -0.0699 0.714521 0.492109 0.744993 0.450348
0.196633 -0.062053 0.711808 0.492109 0.744993 0.450348
0.047496 -0.039141 0.625331 -0.279581 0.351478 0.893475
0.044312 -0.030933 0.621106 -0.279581 0.351478 0.893475
-0.059009 -0.056479 0.733257 0.293637 -0.66925 0.682555
-0.037417 0.126887 0.538742 -0.309821 0.721512 0.619219
-0.117732 -0.131177 0.263196 -0.532365 0.599796 0.597354
-0.109137 -0.059491 0.389232 -0.032432 0.497204 0.867028
0.035549 -0.116471 0.580855 0.084698 0.002415 0.996404
0.03595 -0.115204 0.580855 0.067858 -0.050743 0.996404
-0.15605 -0.104313 0.158242 -0.239141 -0.281669 0.929233
0.016208 -0.140777 0.666437 -0.626587 0.249752 0.73825
-0.10258 0.209326 0.589858 0.754354 0.500566 0.424716
-0.148634 -0.088552 0.163583 -0.264191 0.28376 0.921783
0.194335 0.014118 0.337282 0.012213 -0.286131 0.958113
-0.147072 -0.096954 0.163908 -0.352979 0.095476 0.930747
0.203348 0.082538 0.310586 -0.015486 -0.13486 0.990744
0.088416 0.179112 0.411128 0.148606 0.839682 0.522351
-0.04302 0.13733 0.574809 -0.851587 -0.198355 0.485236
0.202 -0.104124 0.549854 -0.126082 0.008054 0.991987
0.099087 -0.016499 0.353843 -0.143869 0.11922 0.982389
-0.051261 0.113659 0.345071 -0.135153 0.782779 0.607447
0.117919 0.044551 0.436549 0.121058 -0.21562 0.968944
-0.086824 -0.212012 0.284964 -0.028522 -0.183899 0.982531
0.056448 0.050189 0.457119 -0.462723 -0.351329 0.813914
0.048702 0.05634 0.45537 -0.462723 -0.351329 0.813914
0.139716 0.01276 0.51122 0.317732 0.111502 0.941602
-0.011958 -0.106007 0.456337 0.475252 -0.736883 0.48077
0.125973 -0.117477 0.368394 0.154958 -0.878482 0.451949
0.040033 -0.03159 0.620219 0.155055 0.263955 0.95199
-0.002205 -0.128536 0.871741 0.114367 -0.786517 0.606886
-0.025896 -0.137247 0.508327 -0.171769 -0.159419 0.972153
0.059492 0.192606 0.460905 0.402642 0.119749 0.907491
0.06027 -0.031185 0.852314 0.644282 0.172875 0.744993
0.051258 0.191697 0.464679 0.402642 0.119749 0.907491
-0.043751 0.165148 0.25378 -0.870755 0.179919 0.457618
0.070451 -0.195358 0.495768 0.050491 0.177832 0.982765
0.100805 0.03908 0.628965 -0.106485 0.779146 0.617731
-0.059862 -0.129031 0.587159 -0.156969 0.200603 0.967016
0.090773 -0.185168 0.50299 -0.151939 -0.73659 0.659052
-0.036204 -0.07844 0.672758 -0.342589 -0.170408 0.923902
-0.084988 0.081707 0.702283 -0.110349 -0.284128 0.952415
0.056583 -0.032369 0.622894 -0.27135 0.095873 0.957694
0.08131 -0.02877 0.912257 0.358499 0.512052 0.780564
-0.066073 -0.126987 0.585727 -0.018213 0.536035 0.843999
0.07561 -0.035677 0.919406 0.358499 0.512052 0.780564
0.001553 -0.210991 0.34675 0.118765 0.160478 0.979868
0.006268 0.012413 0.339733 0.056347 0.144537 0.987894
0.173771 0.02015 0.503462 0.586555 0.120835 0.800845
-0.113267 -0.123182 0.388541 -0.100593 0.370996 0.92317
-0.100263 0.032384 0.492526 -0.434975 0.042388 0.899444
-0.008496 -0.063025 0.624285 -0.406646 -0.009132 0.91354
-0.091845 -0.119498 0.150373 -0.504331 0.494107 0.708173
0.172878 0.152616 0.278102 -0.097635 0.147179 0.984279
-0.071521 -0.120499 0.428621 0.48057 0.15553 0.863054
0.037027 -0.127009 0.3387 0.391157 -0.460583 0.79678
-0.089969 -0.144328 0.255851 0.131184 -0.906309 0.40174
-0.080665 -0.144124 0.253274 0.131184 -0.906309 0.40174
-0.041482 -0.070032 0.672488 -0.26768 -0.241433 0.932769
0.110776 -0.050609 0.480896 -0.42046 0.496714 0.759268
0.172294 0.152565 0.278102 0.070877 0.161774 0.984279
0.186731 0.011014 0.574675 0.204654 0.02673 0.978469
-0.084995 -0.130079 0.650916 -0.744523 0.147183 0.65117
0.045094 0.086668 0.841125 -0.126458 -0.020876 0.991752
0.04375 0.098363 0.8412 -0.126458 -0.020876 0.991752
-0.034062 0.205949 0.266487 0.773359 0.506322 0.381515
-0.022327 0.113255 0.242052 -0.693987 0.618704 0.368221
-0.140093 0.189176 0.581711 -0.70294 0.616755 0.354242
0.014048 0.234965 0.562683 -0.341032 0.756695 0.557773
0.008709 0.238102 0.555162 -0.341032 0.756695 0.557773
0.245088 0.03371 0.501063 0.326972 0.048235 0.943802
0.052593 -0.176915 0.23201 0.866795 -0.047132 0.496432
0.013452 -0.163831 0.453753 -0.263036 0.116012 0.957786
-0.172375 0.046017 0.359107 -0.322824 -0.007066 0.946432
-0.178214 0.053665 0.357172 -0.322824 -0.007066 0.946433
-0.016895 0.057173 0.783446 0.389117 -0.373362 0.842133
0.002062 0.095436 0.396463 -0.405694 -0.408989 0.817398
-0.001856 0.080234 0.386913 -0.405694 -0.408989 0.817399
-0.032011 0.143256 0.576186 -0.666655 0.43503 0.605244
-0.038664 0.136526 0.573696 -0.666655 0.43503 0.605244
0.040376 0.11087 0.362492 -0.085838 0.854046 0.513066
0.003776 0.12944 0.547625 0.189694 0.510712 0.838564
-0.194364 0.167098 0.390015 -0.932779 -0.308596 0.186257
0.1566 0.051007 0.235884 0.347584 0.663357 0.662678
0.055498 0.126481 0.274112 0.017138 0.204069 0.978806
0.184186 -0.06181 0.33342 -0.492415 -0.17026 0.853545
0.07444 0.129434 0.822688 0.267246 -0.39446 0.879193
0.208897 -0.05947 0.716374 -0.10568 -0.929291 0.353908
-0.02575 0.11425 0.913108 0.204057 -0.796724 0.568852
-0.145784 -0.062978 0.165185 0.528152 0.591756 0.609
0.021572 0.06492 0.398011 -0.751362 -0.443285 0.488829
-0.021741 0.11017 0.905956 0.204057 -0.796724 0.568852
0.105668 0.027861 0.5639 0.706425 -0.186918 0.68266
-0.117073 -0.030171 0.488486 -0.227574 0.547503 0.805264
0.08547 -0.189889 0.49493 -0.027103 -0.042885 0.998712
0.004389 -0.093613 0.500247 -0.478776 -0.729469 0.488518
-0.061926 0.007904 0.899771 -0.014228 -0.55823 0.829565
-0.032044 0.068365 0.349719 0.29863 0.619514 0.725964
-0.033845 0.08461 0.336597 0.29863 0.619514 0.725964
-0.061218 0.156335 0.409784 -0.684874 0.147205 0.713638
-0.067859 0.151685 0.40437 -0.684874 0.147205 0.713637
-0.086737 -0.046885 0.447849 -0.272829 -0.001445 0.962061
0.189948 0.002606 0.611152 -0.464458 -0.105867 0.879245
-0.070261 -0.188561 0.277052 -0.181842 0.20947 0.960758
-0.002577 0.065822 0.225508 0.494255 0.568876 0.657337
0.117785 0.022963 0.701181 0.291187 0.637778 0.713056
0.144759 -0.036954 0.780879 -0.312149 -0.134097 0.940522
-0.086737 -0.046885 0.447849 -0.372666 0.338842 0.86389
-0.046589 0.005083 0.84531 -0.558383 -0.300872 0.773101
-0.092959 -0.050102 0.673387 0.155462 -0.107225 0.982005
-0.071576 -0.098295 0.526878 -0.270887 -0.768649 0.579481
0.171003 0.01607 0.506901 0.121457 -0.379508 0.917182
0.022728 -0.009809 0.588014 0.190366 0.062625 0.979714
-0.151788 -0.057446 0.630367 0.05834 0.019096 0.998114
0.017772 -0.064122 0.733907 -0.093921 -0.278074 0.955957
-0.070245 0.141503 0.653444 0.335765 0.207085 0.9189
0.019756 0.18021 0.276319 -0.256139 0.446473 0.857353
-0.035484 -0.104217 0.717087 -0.676102 -0.279685 0.681661
0.012151 -0.071011 0.731351 0.174458 0.727612 0.663434
-0.116932 -0.158516 0.558543 0.000651 -0.372823 0.927902
-0.127737 0.023745 0.624772 0.520409 0.703239 0.484385
-0.16893 -0.062931 0.630652 0.019338 -0.056845 0.998196
-0.006018 -0.211917 0.340961 -0.13125 0.23943 0.962001
0.170668 0.006389 0.499908 0.804124 0.09182 0.587328
0.201227 -0.072491 0.536987 -0.818795 -0.424623 0.386355
0.04729 0.043602 0.446818 -0.390719 -0.118193 0.91289
-0.015178 -0.127246 0.539323 -0.303787 0.589148 0.748744
-0.068162 0.024135 0.68009 -0.714677 0.474708 0.513702
0.184977 0.032385 0.269121 0.62025 -0.510428 0.595612
-0.072519 0.015991 0.681554 -0.714677 0.474708 0.513702
-0.074162 -0.099099 0.416422 0.485284 0.275296 0.829886
-0.082301 0.151335 0.655634 0.335765 0.207085 0.9189
0.061616 0.082412 0.777171 0.808085 0.293054 0.510998
-0.080083 -0.051453 0.502209 0.162186 0.381967 0.909834
-0.013956 -0.128254 0.505438 -0.494968 -0.626694 0.601881
-0.002328 -0.140469 0.502283 -0.494969 -0.626694 0.601881
0.115107 0.028411 0.432742 0.47247 -0.355469 0.806482
-0.200683 0.098337 0.5101 0.046998 -0.05282 0.997497
-0.20909 0.104853 0.510842 0.046998 -0.05282 0.997497
-0.013293 -0.20259 0.448314 -0.437067 -0.796593 0.417626
-0.204175 -0.075432 0.319254 -0.416976 0.370475 0.829988
-0.20766 0.114712 0.510559 0.06961 0.012927 0.997491
-0.035468 0.029856 0.313517 0.528967 0.27708 0.802135
-0.034616 0.020675 0.316126 0.528967 0.27708 0.802135
-0.065671 0.088451 0.736924 0.051236 -0.044712 0.997685
-0.044431 0.089675 0.538745 0.362131 0.230446 0.903192
-0.041938 0.113205 0.376126 0.626485 -0.555247 0.547008
-0.099087 -0.056535 0.673654 0.155462 -0.107225 0.982005
0.062141 0.072769 0.421672 0.229861 0.794147 0.562579
0.150841 -0.046616 0.710754 -0.335661 0.217797 0.916459
0.164572 0.003478 0.345084 0.511971 -0.444565 0.735015
-0.189153 -0.07596 0.3646 0.061071 -0.010722 0.998076
0.052248 0.195536 0.376002 0.019998 0.631735 0.774926
0.047453 0.183607 0.385851 0.019998 0.631735 0.774926
0.173262 0.144788 0.27932 -0.040169 0.153128 0.98739
0.031114 -0.238024 0.35082 -0.119171 -0.099466 0.987879
-0.036619 0.03871 0.30069 -0.094231 0.669726 0.736605
-0.022717 0.09039 0.50376 -0.342165 0.727512 0.594684
-0.020562 -0.015305 0.75578 -0.051956 0.154734 0.986589
0.133076 0.004794 0.299332 0.287925 -0.555884 0.779803
0.143468 -0.047827 0.692973 0.063932 -0.240044 0.968654
-0.046988 -0.058786 0.847558 -0.321006 -0.09208 0.94259
-0.099206 -0.191349 0.252906 -0.297457 -0.10916 0.948474
-0.184987 0.082383 0.512086 0.180021 0.396052 0.900409
-0.104615 -0.19791 0.250454 -0.297457 -0.10916 0.948474
-0.142414 0.010522 0.633263 -0.104495 0.80065 0.589949
0.111356 -0.178201 0.377184 -0.057286 -0.839212 0.540778
0.024579 -0.146651 0.702429 0.68112 0.361387 0.63677
0.002098 0.128849 0.248735 0.151444 0.770272 0.619472
0.009151 0.140458 0.232576 0.151444 0.770272 0.619472
0.157794 -0.082851 0.595084 0.274428 -0.11998 0.954093
0.16064 -0.098487 0.592299 0.274428 -0.11998 0.954093
-0.000186 0.240519 0.56751 0.813424 0.301582 0.497383
-0.034577 -0.108451 0.704682 -0.338778 -0.537454 0.772252
0.157141 -0.095116 0.592515 0.069062 -0.27706 0.958368
-0.087363 -0.065689 0.416736 0.782852 0.355924 0.510355
-0.013303 0.179933 0.565197 -0.087931 -0.189027 0.978027
-0.015879 0.170711 0.563183 -0.087931 -0.189027 0.978027
-0.101912 -0.094808 0.229056 0.462099 -0.800852 0.380921
-0.160921 -0.022866 0.330756 -0.001527 -0.517004 0.855982
-0.016561 0.190361 0.539939 -0.461104 0.445689 0.767297
-0.020535 0.180935 0.543026 -0.461104 0.445689 0.767297
-0.151162 0.002998 0.763558 0.466485 0.372056 0.802475
0.055379 0.255955 0.28788 -0.316449 0.39337 0.863204
-0.095638 0.188289 0.40084 -0.567047 0.375937 0.732891
-0.105108 0.186765 0.394294 -0.567047 0.375937 0.732891
-0.07881 0.183984 0.387512 -0.648291 0.557825 0.518219
0.079103 0.03023 0.418194 0.577084 -0.520895 0.629001
0.190328 -0.008164 0.587526 0.214099 -0.657844 0.722082
0.125658 -0.046444 0.479947 -0.503923 -0.093457 0.858678
0.111258 -0.046458 0.471495 -0.503923 -0.093457 0.858678
-0.130623 0.016757 0.288022 -0.729737 -0.020896 0.683409
-0.076885 -0.108342 0.265339 -0.184735 0.295379 0.93735
0.047027 -0.106882 0.584167 0.614017 -0.470676 0.633598
0.0067 0.19451 0.361062 0.006148 -0.054987 0.998468
-0.027355 -0.042583 0.735291 -0.161875 -0.349769 0.922745
-0.032265 -0.032299 0.738328 -0.161875 -0.349769 0.922745
0.150227 -0.135953 0.505569 -0.87824 -0.231756 0.41831
-0.118042 0.074827 0.52584 0.655467 0.319542 0.684292
0.153482 -0.136692 0.511994 -0.87824 -0.231756 0.41831
-0.136136 -0.044005 0.538896 0.326092 0.002565 0.945334
-0.113241 0.01639 0.302864 -0.344884 -0.647989 0.679092
-0.095037 0.101398 0.551583 0.258573 -0.025256 0.965661
-0.043789 -0.059552 0.633395 0.112445 -0.157108 0.981159
-0.049472 -0.051813 0.635285 0.112445 -0.157108 0.981159
-0.222237 -0.078862 0.529453 0.378768 -0.138626 0.915051
-0.161274 0.008702 0.580049 0.150082 -0.350614 0.924416
-0.168647 0.014214 0.583337 0.150082 -0.350614 0.924416
0.051463 -0.280606 0.319491 0.968219 0.100361 0.229082
-0.038492 0.064208 0.346544 0.21123 0.839386 0.500812
-0.009285 0.150811 0.623147 -0.672318 -0.119472 0.730558
-0.166209 -0.152761 0.550769 0.101887 0.092252 0.990509
0.11685 0.023961 0.572913 -0.064884 0.658693 0.749609
-0.132365 -0.067916 0.440922 -0.340723 -0.771011 0.538005
-0.119079 -0.078882 0.43362 -0.340723 -0.771012 0.538005
0.067907 0.078599 0.440872 0.76056 -0.471417 0.446447
0.033493 0.038377 0.449455 0.045626 0.451555 0.891076
0.208757 0.03131 0.440022 0.189388 -0.173962 0.966369
-0.073029 0.157528 0.402391 0.342837 -0.398074 0.850882
-0.136181 0.09628 0.441602 -0.305812 -0.001653 0.952091
-0.201958 0.011425 0.401889 0.097559 0.25651 0.961605
0.000966 0.094107 0.752476 0.552357 0.342442 0.760023
-0.132177 -0.008968 0.696516 -0.06769 0.461728 0.884435
0.001537 -0.102006 0.39034 0.350816 0.251282 0.902101
-0.01399 -0.131393 0.878811 0.410003 -0.767836 0.492266
-0.128713 -0.135605 0.389629 0.446978 0.2572 0.856773
0.118942 -0.055349 0.799375 0.683244 -0.080089 0.725785
-0.175842 0.013316 0.581695 0.227667 0.068341 0.971338
-0.172447 0.003838 0.581566 0.227667 0.068341 0.971338
0.110849 -0.026376 0.48199 -0.192551 -0.637407 0.746081
0.111367 -0.037447 0.472665 -0.192551 -0.637407 0.746081
-0.130406 -0.167507 0.345445 0.007461 0.096244 0.99533
-0.093396 -0.094042 0.14874 -0.639955 -0.52673 0.559475
0.069479 0.119546 0.502737 -0.214316 -0.290797 0.932473
0.014443 0.133156 0.849867 -0.736861 0.461026 0.49446
-0.00731 0.092413 0.258745 0.483738 -0.248783 0.839109
-0.036168 -0.170833 0.569961 -0.802421 -0.070082 0.592629
-0.160079 0.020887 0.581232 0.006054 -0.217698 0.975997
0.159628 0.036453 0.482312 -0.15241 0.645076 0.748764
0.042894 -0.053194 0.839159 0.948923 -0.06564 0.308604
-0.06395 0.045784 0.853288 -0.4506 0.68759 0.569368
-0.012466 -0.101084 0.545733 0.059459 -0.494454 0.867168
-0.016049 -0.116513 0.537181 0.059459 -0.494454 0.867168
0.085969 0.089857 0.806221 -0.141036 0.874659 0.463768
0.104536 0.202074 0.550602 -0.026553 0.007183 0.999622
0.012938 -0.137263 0.673005 0.177866 -0.80624 0.564217
0.03697 -0.167396 0.563557 0.12799 -0.117217 0.984824
0.110494 0.208391 0.550709 0.01909 -0.019805 0.999622
-0.131253 0.006382 0.621431 0.433041 -0.122246 0.893046
-0.109932 -0.087545 0.512616 -0.299042 -0.179726 0.937162
-0.269982 -0.055091 0.348153 0.270401 0.389478 0.880449
0.162555 0.009652 0.34312 0.630232 -0.569042 0.528203
0.155516 0.003236 0.344607 0.630232 -0.569042 0.528203
-0.132012 -0.17286 0.597479 0.210489 0.11223 0.971133
0.172967 -0.022173 0.364084 -0.278762 -0.863911 0.419464
-0.177763 0.061274 0.430971 0.100256 0.675821 0.730215
-0.083098 0.13024 0.357791 -0.767666 0.430973 0.47429
0.096627 0.058997 0.607376 0.420819 0.738621 0.52664
0.087175 0.061337 0.611647 0.420819 0.738621 0.52664
-0.054462 -0.045324 0.845202 -0.033127 0.278039 0.959998
-0.226089 0.071059 0.302945 -0.204704 0.075357 0.975919
-0.070282 0.269612 0.489842 -0.068644 -0.016131 0.997511
0.211523 -0.08397 0.441091 0.591371 0.503063 0.630244
0.10582 0.054866 0.432531 0.74607 -0.302778 0.593047
-0.037442 0.051568 0.477995 0.039651 -0.3648 0.930241
0.006787 -0.105451 0.456916 -0.71083 -0.469725 0.523525
0.077273 -0.140842 0.313072 -0.049158 0.236863 0.970299
-0.024077 -0.099554 0.505831 -0.167059 -0.824089 0.541266
-0.202601 0.03189 0.363632 -0.367519 -0.1495 0.917921
0.195077 0.028956 0.442279 0.189388 -0.173962 0.966369
0.111263 -0.031725 0.180354 0.151954 -0.7971 0.584415
-0.065743 0.272176 0.489888 0.045709 0.043122 0.998024
0.100875 -0.117797 0.284157 -0.112983 -0.912949 0.392121
0.158431 -0.019018 0.366289 0.711981 0.364738 0.600041
0.069053 -0.070919 0.646701 -0.245743 -0.332769 0.910426
0.110167 -0.121555 0.278085 -0.112983 -0.912949 0.392121
-0.099614 0.131316 0.568701 -0.307848 0.450734 0.837895
0.094898 0.052879 0.637756 0.238703 0.269504 0.932946
0.091142 -0.116379 0.28133 -0.242823 -0.887893 0.390746
0.009595 -0.091834 0.495494 -0.181668 -0.47878 0.858933
-0.056741 -0.070664 0.871176 0.369842 0.038393 0.928301
-0.157751 -0.063849 0.502281 0.522363 -0.046461 0.851457
-0.133133 0.144764 0.438791 0.010124 -0.819963 0.572327
-0.136516 5.1e-05 0.626412 -0.577117 0.523948 0.62643
-0.071884 0.039828 0.827576 -0.140547 0.143651 0.979597
-0.184235 0.03437 0.750725 0.095817 -0.054863 0.993886
0.03151 0.046294 0.26165 -0.127481 -0.171803 0.976848
0.117411 -0.047586 0.519206 0.404091 -0.127176 0.905835
0.170011 -0.008848 0.444625 -0.382541 0.305462 0.871984
0.026587 0.012919 0.540002 -0.544679 0.28713 0.78796
-0.082216 -0.04398 0.503875 0.485527 -0.625568 0.610679
-0.152881 0.070596 0.454488 -0.360043 0.015692 0.932804
0.068706 0.072409 0.806335 -0.123908 0.909299 0.397269
0.0596 0.07258 0.803103 -0.123908 0.909299 0.397269
0.179641 0.063781 0.486533 -0.334436 0.136081 0.932542
0.159901 -0.019677 0.364932 -0.73548 -0.559288 0.382448
0.076022 -0.025694 0.784392 0.026911 -0.349585 0.936518
-0.075552 -0.043512 0.446185 0.13721 0.497704 0.856425
0.038952 -0.160946 0.34076 0.411156 -0.463121 0.785156
0.052492 0.063396 0.760121 0.298675 0.433297 0.850322
-0.08083 -0.037174 0.443348 0.13721 0.497704 0.856425
-0.108063 0.170183 0.40555 0.496122 0.71265 0.495976
0.063 0.139836 0.620537 0.747395 -0.233273 0.622081
-0.284225 -0.082954 0.371272 0.211046 -0.017583 0.977318
-0.088677 -0.021866 0.493246 -0.175552 0.366726 0.913616
0.005117 0.202233 0.35516 0.279318 -0.151065 0.948241
0.003577 0.19208 0.353996 0.279318 -0.151065 0.948241
-0.240985 -0.011668 0.381938 -0.539173 0.412554 0.734229
0.001375 0.089531 0.677387 0.182381 0.455506 0.871351
-0.200122 0.030383 0.36088 -0.512362 0.048589 0.857394
0.049694 0.067539 0.608692 0.574679 0.700376 0.42334
-0.091463 0.137481 0.763172 0.248273 -0.423167 0.871373
0.054987 -0.080137 0.647184 0.398811 0.096447 0.911947
-0.100421 0.176537 0.404908 -0.790332 -0.317085 0.524244
-0.148729 0.035096 0.33034 -0.494878 0.080593 0.865217
-0.157568 0.024345 0.326285 -0.494878 0.080593 0.865217
-0.129477 0.071813 0.537306 0.101916 0.637596 0.7636
-0.065871 0.147968 0.378218 0.071488 -0.28908 0.954632
-0.115287 0.062148 0.492816 0.242443 0.743662 0.623047
0.068236 -0.090586 0.650907 -0.211596 0.331903 0.919276
0.062002 -0.098143 0.6522 -0.211596 0.331903 0.919276
0.077634 0.065893 0.605659 0.563784 0.492206 0.663235
0.09024 0.054792 0.603181 0.563784 0.492206 0.663235
-0.030057 0.114224 0.345112 -0.345048 0.812819 0.469326
-0.045103 0.112035 0.337842 -0.345048 0.812819 0.469326
0.114067 -0.131688 0.387789 0.871875 0.285866 0.397636
0.122047 -0.036144 0.517429 0.390693 -0.325729 0.860964
0.115797 -0.046047 0.516518 0.390693 -0.325729 0.860964
-0.110034 -0.016757 0.776166 0.538325 0.223377 0.812594
-0.111109 -0.003127 0.773131 0.538325 0.223377 0.812594
-0.046269 0.147274 0.543095 0.745038 0.189361 0.639579
0.014131 0.088146 0.631249 0.38334 0.77733 0.498808
0.093659 -0.003863 0.780984 -0.580839 0.174362 0.795125
-0.006621 -0.009557 0.550664 -0.54689 -0.09185 0.832151
0.078461 -0.05045 0.592837 -0.334628 -0.181623 0.924682
0.079735 -0.116762 0.626262 -0.857133 -0.118649 0.501244
0.08054 0.054389 0.697472 0.243432 0.290102 0.925517
0.067984 0.046378 0.703286 0.243432 0.290103 0.925517
0.159984 -0.005692 0.57225 -0.392784 0.642215 0.65824
0.207781 0.115432 0.584128 0.420988 -0.787499 0.450127
0.205832 0.110202 0.576801 0.420988 -0.787499 0.450127
-0.185589 -0.071654 0.365261 0.070032 0.044982 0.99653
-0.063065 0.036973 0.892545 0.459602 0.7336 0.500597
0.096487 0.040798 0.64187 0.320328 -0.384527 0.865754
0.100019 0.07778 0.735336 -0.059928 -0.395463 0.916525
0.130707 -0.010858 0.432142 0.792496 0.144066 0.592617
-0.053633 0.151179 0.374886 0.234753 0.028959 0.971624
0.074697 0.163679 0.316887 0.388771 -0.499316 0.7743
0.018113 -0.148978 0.709321 -0.807768 0.348933 0.475138
0.041217 -0.044035 0.886053 0.381398 0.043253 0.923399
-0.07795 0.21018 0.427427 -0.264806 0.494013 0.828148
-0.065628 -0.091668 0.684435 -0.010772 -0.121241 0.992565
0.055379 0.003537 0.892579 0.201386 -0.306689 0.930261
0.044733 -0.000628 0.893511 0.201386 -0.306689 0.930261
0.110858 0.028233 0.726359 -0.36575 -0.690274 0.624298
0.090455 -0.059262 0.594134 -0.300555 -0.138159 0.943705
0.11131 -0.134605 0.369573 -0.361122 0.241674 0.900658
0.060193 -0.056205 0.89765 -0.011195 -0.872877 0.487812
0.077437 -0.047557 0.893136 -0.095851 -0.863142 0.495781
-0.056219 0.146395 0.628609 -0.11847 0.336414 0.934233
0.08551 -0.050824 0.889009 -0.095851 -0.863142 0.495781
0.112675 0.09873 0.742652 0.786515 -0.270718 0.555073
0.067794 -0.07072 0.902951 -0.875496 -0.055065 0.480078
-0.102526 0.072456 0.483266 -0.744783 -0.238854 0.623095
0.178575 -0.088191 0.33795 -0.218478 0.144611 0.965067
0.171697 -0.095156 0.337436 -0.218478 0.144611 0.965067
-0.048443 -0.166969 0.47115 -0.2021 -0.4165 0.886388
-0.06746 -0.085017 0.684511 -0.066236 0.056005 0.996231
0.042985 0.071882 0.649917 0.370946 -0.155109 0.915609
0.075275 -0.161982 0.299667 0.650095 -0.655746 0.383892
0.077605 0.115319 0.622488 -0.269358 0.735001 0.62227
-0.019562 0.221399 0.361968 -0.188911 0.169998 0.967168
-0.034003 0.05654 0.46962 0.323977 0.030916 0.94556
-0.055161 0.06281 0.509331 -0.487342 -0.102468 0.867178
0.132537 -0.129334 0.644467 0.106527 0.276181 0.955184
0.036211 0.09403 0.401164 -0.405894 0.557887 0.723887
-0.118242 0.006814 0.687189 -0.078759 0.147219 0.985963
-0.137183 -0.149172 0.596368 0.161478 -0.050206 0.985598
-0.136106 -0.160792 0.5956 0.161478 -0.050206 0.985598
0.032291 0.065213 0.616839 0.515071 -0.546417 0.660401
-0.048698 0.038196 0.716286 -0.396577 0.759468 0.515689
-0.147575 -0.052827 0.69065 -0.30173 -0.578078 0.758146
0.084485 0.111471 0.824096 0.832812 -0.433704 0.343983
0.181698 -0.053501 0.415177 0.124727 -0.306486 0.943668
-0.086782 0.160833 0.279168 0.400115 0.056439 0.914726
0.012409 0.123821 0.677402 -0.209118 -0.514955 0.831319
-0.062317 -0.236609 0.266364 0.218805 -0.719423 0.659208
0.037372 0.068381 0.648487 0.310884 -0.110547 0.943997
0.008535 -0.13525 0.337776 -0.065175 -0.589528 0.805115
0.004544 -0.143102 0.331703 -0.065175 -0.589528 0.805115
-0.063785 0.088008 0.557207 -0.19401 0.273092 0.942221
0.151089 -0.008542 0.42702 0.078293 -0.788541 0.609978
0.216714 -0.122228 0.36135 -0.298382 -0.069138 0.951939
-0.112822 -0.098375 0.170833 0.54296 -0.155232 0.825286
-0.046925 -0.099279 0.412933 0.280395 0.275865 0.919389
-0.021285 0.232768 0.357818 -0.034429 0.274157 0.961069
0.169238 -0.068562 0.472521 0.440651 -0.479538 0.758861
0.075374 -0.15004 0.199372 0.390916 0.149273 0.908242
0.188614 -0.032763 0.587264 0.107243 -0.255528 0.960835
-0.026019 -0.103316 0.50198 -0.07281 0.600999 0.795926
-0.04274 -0.109571 0.505174 -0.07281 0.600999 0.795926
0.077948 0.085428 0.645814 0.640117 -0.457556 0.617165
0.065684 0.081588 0.425335 0.505365 -0.214069 0.835931
-0.189092 0.060365 0.284642 -0.320726 0.454492 0.831006
-0.159951 -0.170491 0.537305 -0.503516 -0.076967 0.860551
0.187112 -0.047669 0.583468 0.107243 -0.255528 0.960835
0.053358 0.013031 0.953293 -0.018159 0.957309 0.288495
-0.151154 -0.046675 0.35345 0.273982 0.509425 0.815733
-0.053633 0.151179 0.374886 0.27051 0.179055 0.945919
-0.045411 -0.138439 0.40111 0.344586 -0.158862 0.925215
-0.120054 0.081302 0.754329 0.431484 0.083536 0.898245
-0.11657 0.0687 0.409481 -0.459855 0.039783 0.887103
0.070393 0.044757 0.384605 0.831062 0.008422 0.556117
0.214816 -0.123187 0.36135 0.232676 0.199181 0.95194
0.150677 -0.031469 0.784531 -0.463453 -0.017694 0.885945
0.145354 -0.040068 0.781575 -0.463453 -0.017694 0.885945
-0.063769 -0.141959 0.545321 0.124782 -0.809519 0.57368
-0.054843 -0.143913 0.540622 0.124782 -0.809519 0.57368
-0.125699 0.216865 0.41885 0.188789 0.113621 0.975422
0.053903 -0.175591 0.452322 0.441617 -0.109886 0.890449
-0.098363 0.219038 0.394731 0.198995 0.763183 0.614779
-0.107548 0.21624 0.401177 0.198995 0.763183 0.614779
-0.110139 -0.025663 0.494863 -0.073685 -0.186015 0.97978
0.036392 -0.021452 0.950067 0.151395 -0.338154 0.928833
-0.059789 0.025899 0.882183 -0.412191 0.080488 0.907535
0.059065 -0.114213 0.270415 -0.541061 -0.474102 0.694608
-0.051999 0.080056 0.936506 0.082211 0.039512 0.995831
-0.036527 -0.173654 0.256503 -0.800921 -0.196602 0.565573
-0.069298 0.027325 0.878867 -0.11603 0.40391 0.907411
-0.031341 -0.187106 0.25917 -0.800921 -0.196602 0.565573
-0.06767 -0.173913 0.39727 0.36979 -0.770023 0.519923
-0.261698 -0.044769 0.322584 -0.508799 0.507926 0.695079
-0.068627 -0.094244 0.514349 -0.38827 0.203827 0.898722
-0.100488 0.163762 0.414213 -0.001942 0.680267 0.732962
0.218548 -0.115546 0.354372 0.145951 0.052042 0.987922
0.00169 -0.101627 0.676831 -0.193238 0.198185 0.960927
0.067798 0.031467 0.425612 0.446432 -0.394762 0.803033
-0.101743 -0.126634 0.521952 -0.484055 0.317247 0.815503
0.052548 0.064553 0.560162 0.475782 0.622574 0.621316
0.009388 0.136762 0.5097 -0.039952 0.164507 0.985566
-0.028864 0.221394 0.568167 -0.042463 -0.020935 0.998879
-0.030877 0.220735 0.568242 0.041611 0.000109 0.999134
-0.101254 -0.106096 0.570891 -0.230793 -0.48587 0.843009
-0.108642 0.182712 0.423891 0.332293 0.201448 0.921412
-0.151531 -0.08295 0.174666 0.341027 -0.484346 0.805673
-0.119118 0.015981 0.279153 -0.925244 0.023303 0.378657
-0.095601 -0.066484 0.488378 -0.641508 0.448937 0.622032
-0.032458 0.097025 0.621055 0.3345 0.068829 0.939879
-0.038248 0.089435 0.623671 0.3345 0.068829 0.939879
-0.074224 0.169064 0.420117 0.000473 0.084234 0.996446
0.056908 -0.034273 0.943838 -0.07463 0.453012 0.888375
0.050118 0.041474 0.613841 -0.447132 0.517763 0.72938
-0.045307 0.137334 0.570404 0.206701 -0.205039 0.956678
-0.063956 0.057594 0.894512 -0.827479 0.479002 0.292977
-0.070755 0.05052 0.886874 -0.827479 0.479002 0.292977
0.059842 -0.125651 0.259649 -0.289604 -0.657924 0.695173
-0.053305 0.133738 0.571361 0.206701 -0.205039 0.956678
-0.041056 -0.002603 0.929467 -0.382572 0.099187 0.918586
0.153247 -0.002613 0.569992 0.156388 0.523532 0.83753
0.145195 -0.014338 0.578825 0.156388 0.523532 0.83753
